# 3D point list with one line of data per point:
#   POINT3D_ID, X, Y, Z, R, G, B, ERROR, TRACK[] as (IMAGE_ID, POINT2D_IDX)
# Number of points: 528, mean track length: 4.36691
7980 -0.062681 0.734004 2.80078 22 27 37 2.26584 32 1741 33 1763 24 1715 34 8174 31 7850 30 6392 23 2796 22 2503
7979 -0.121696 0.730321 2.79001 80 92 107 1.64806 32 7901 35 4854 34 8250 30 6422 23 2781 22 3635
7978 -0.0753447 0.841027 2.79047 14 18 26 2.27533 31 2021 23 2221 32 3056 30 2343 35 2891
7977 0.101603 0.484063 2.85571 15 20 29 2.9096 24 2059 23 1823 34 1200 35 1706 25 2259
7976 0.104078 0.514987 2.85259 16 21 31 2.34823 24 2023 23 1789 34 932 35 1372 25 2229
7975 -0.0482423 0.85364 2.79186 128 137 140 2.28719 32 949 33 972 35 6058 32 4327 34 4744 31 7258 30 3228 24 1553 25 1830 23 1294 22 1298
7974 -0.225092 0.798545 2.76351 159 170 169 1.17634 24 1653 34 1796 32 7571 34 9405 33 7348 23 1397
7973 -0.256983 0.909899 2.74712 3 1 14 1.30695 35 2855 23 1253 24 3504 25 6093 23 3125 22 671 21 5424 19 8322
7972 -0.0302477 0.818095 2.8002 0 10 35 1.37771 24 969 25 1210 32 7420 33 5668 31 7455 23 807
7971 -0.031184 0.689297 2.80986 219 233 243 1.18247 32 8099 34 8415 31 8102 35 7625 34 1716 33 1706 24 1773 25 6071 23 1387 23 3312 22 2952 21 3471
7969 0.120834 1.00232 2.80889 26 36 55 0.615152 33 6446 34 4556 23 4009
7967 -0.0177227 0.801296 2.80147 174 220 252 0.512132 24 3606 35 4731 23 3984
7966 -0.0311512 0.592951 2.81811 184 192 230 0.20781 32 2460 23 3965 30 4143
7965 -0.0185211 0.541022 2.82873 31 42 62 0.409755 24 4009 32 5059 23 3960
7964 -0.0550306 0.467266 2.82316 24 29 49 0.13795 32 9399 23 3957
7963 -0.460339 0.462937 2.74705 95 98 112 0.709444 35 9541 23 3948 2 5046
7962 -0.316298 0.36781 2.78603 68 77 92 0.474296 24 2806 32 5405 23 3943
7961 -0.224743 -0.500338 3.21575 30 25 32 0.433775 25 3469 23 3936 26 2832
7960 -0.237448 -0.491659 3.21258 199 197 198 0.610885 25 5229 23 3930 26 2842 27 3056
7959 -0.220972 -0.496799 3.21978 193 189 190 0.550531 25 5228 23 3929 26 2835 27 3045
7958 -0.232432 -0.492143 3.21528 195 194 192 0.525278 25 5224 23 3928 26 2841 27 3054
7957 -0.237452 -0.484763 3.21583 215 211 209 0.486623 25 5215 23 3922 26 2849
7956 -0.220911 -0.488122 3.2234 210 206 203 0.23872 25 5212 23 3919 26 2845
7955 -0.210353 -0.488591 3.22655 25 22 29 0.786439 25 3458 23 3916 26 2844 27 3060
7953 -0.240535 -0.466988 3.22308 206 206 206 0.441888 25 3448 23 3904 26 3883 27 1877
7952 -0.247301 -0.455916 3.22639 32 32 32 0.311539 25 3442 23 3896 26 1933 27 3113
7951 -0.21615 -0.466654 3.23613 199 197 186 0.30482 25 5178 23 3895 26 2863
7950 -0.225363 -0.46194 3.23466 197 196 194 1.14635 25 5175 23 3892 26 2868 22 3053
7949 -0.233046 -0.458838 3.23139 186 186 184 1.03407 25 5174 23 3891 26 2872 22 2457
7948 -0.199771 -0.452694 3.25682 5 4 7 0.850994 25 5153 23 3870 26 2878 22 3404
7947 -0.2431 -0.43723 3.24614 5 4 10 1.38483 25 5148 23 3866 22 2470
7946 -0.194873 -0.453122 3.25873 163 165 164 1.20664 25 5152 23 3865 26 2877 22 3414
7945 -0.198328 -0.448171 3.26172 101 102 104 1.18924 25 5140 23 3860 26 2882 22 3461
7944 -0.308279 -0.418802 3.26301 6 7 11 2.01919 25 2772 23 3855
7942 -0.27278 -0.420115 3.29007 73 69 70 1.15596 25 5149 23 3843 22 3662
7939 -0.230768 -0.499161 3.21235 34 32 34 0.875439 25 3470 23 3809 26 1946 27 3040
7936 -0.233701 0.198584 2.82979 1 2 1 0.153376 34 4093 23 3762
7935 -0.28601 0.226612 2.80163 51 60 69 1.50135 35 1881 23 3759 22 4151
7934 -0.211127 -0.510161 3.22211 189 188 183 0.360072 25 5248 23 3730 26 2826
7933 -0.406579 0.312612 2.77068 44 57 76 0.857337 33 9709 35 5705 34 6116 23 3728 22 4116
7932 -0.216026 -0.509647 3.21847 185 181 182 0.867181 25 3476 23 3708 26 2825 27 3022
7931 -0.220629 -0.509226 3.21767 202 199 195 0.692094 25 5253 23 3695 26 2828 27 3023 28 3011
7930 -0.227712 -0.509334 3.21239 205 203 205 0.666984 25 5256 23 3681 26 2827 27 3024
7928 -0.110721 0.472119 2.81186 46 51 70 0.55051 33 2602 23 3605 22 3984
7927 0.310141 0.407015 2.90583 53 34 41 1.39396 34 5773 23 3604
7926 -0.1631 0.515224 2.79915 5 13 22 1.48627 24 2901 31 9413 23 3574 7 5408
7925 -0.417499 0.588651 2.75294 66 78 95 0.411911 24 4079 23 3531
7923 -0.294322 0.589614 2.79373 68 80 96 0.185037 24 4310 22 3892
7921 -0.229474 0.601878 2.77673 170 189 206 1.16738 24 3978 33 8559 23 3476 21 2278
7920 0.210707 0.563176 2.75754 244 235 228 1.17705 25 4547 23 3439 22 3870 20 6146 21 5937 19 4268
7918 -0.412078 0.726184 2.72706 0 0 0 2.57419 30 6503 34 2652
7916 -0.293272 0.742378 2.7547 50 59 75 0.406924 24 2607 23 3288 22 3649 21 5683
7915 -0.227666 0.743046 2.76739 191 229 241 0.397958 24 3707 33 3206 23 3281
7914 0.256734 0.708501 2.68805 239 241 217 1.13965 25 4262 23 3235 22 3653
7913 -0.395674 0.80691 2.73045 71 82 104 1.12719 31 4448 23 3232 22 3589
7912 -0.611123 -0.615523 3.50115 164 154 144 1.67197 25 3665 23 3224
7911 -0.4743 -0.65755 3.52233 77 74 67 0.828034 25 4146 23 3221 27 2076
7910 -0.241078 0.828132 2.75626 6 8 22 0.650049 35 7128 23 3202 22 3554 21 1972 30 1823
7909 -0.0581944 0.831024 2.79095 0 0 0 0.232196 24 3582 35 5961
7907 -0.237822 0.866513 2.75352 4 10 29 0.476759 24 3564 23 3155 35 5954 22 3503 21 5486
7906 -0.417977 0.887731 2.71598 84 90 106 0.5534 30 4648 23 3151
7904 -0.266015 0.876939 2.74667 69 77 94 1.42975 24 3555 34 6668 23 3147
7903 -0.11702 0.884474 2.78082 68 75 91 0.363145 24 1509 23 3133
7902 -0.317993 0.902543 2.73394 38 52 62 0.422362 35 2870 23 3132 22 3468
7901 0.135735 0.875908 2.82256 41 48 74 0.727125 24 3495 23 3127 25 4231
7900 -0.253114 0.920393 2.74658 67 80 97 0.0925689 34 2938 23 3118 21 6136
7898 -0.377518 0.967329 2.71666 16 23 39 0.362133 30 8178 23 3098
7897 -0.315236 -0.528182 3.09736 69 69 69 1.61885 25 3501 23 3063
7896 -0.353132 1.03669 2.71719 68 77 92 2.3368 25 2777 23 3048 6 4797 34 6821 5 5434 8 5588
7895 -0.00568876 1.02336 2.78408 29 41 61 0.780749 33 2270 35 4505 23 3046
7894 -0.479746 -0.644278 3.52324 5 0 0 0.530658 25 3630 23 3045 26 2715 27 3362
7893 0.260265 0.986983 2.71249 194 195 188 1.30137 25 3982 23 3034 22 3181
7892 -0.178038 1.04689 2.74799 0 0 0 2.36638 31 6305 35 2752
7891 -0.564962 -0.631182 3.54357 124 114 104 1.59562 23 3023 26 2728
7889 -0.549133 -0.640661 3.54592 225 215 205 2.23493 25 5775 23 2976 27 3383
7887 0.312492 1.04983 2.61892 251 250 253 1.23013 25 3926 23 2945 22 3322
7885 -0.509463 -0.637297 3.53602 47 38 29 1.81708 25 3388 23 2895
7884 -0.169632 -0.474935 3.2593 30 28 31 1.17732 25 5170 23 2888 26 2855 27 1887 22 2463 28 3054
7883 -0.0230324 0.496477 2.82679 24 38 68 0.520107 32 2533 33 2587 23 2877 22 3950 21 6004
7882 -0.211421 -0.47681 3.23319 37 32 37 0.410916 25 3449 23 2867 26 2854
7879 0.129564 0.719587 2.8445 179 207 233 1.5666 33 1764 23 2808 22 2447
7877 -0.282928 0.846754 2.74654 43 52 75 1.45101 30 1897 35 2940 23 2782 22 1349 20 3200 19 8390 16 7437 17 7314
7874 -0.393945 0.711691 2.73608 0 0 0 1.20291 30 6565 35 1444
7871 -0.200874 0.613816 2.78491 21 27 47 0.078788 24 2986 23 2607
7870 -0.0247462 0.521785 2.825 66 69 76 0.717435 31 2238 23 2544 30 2609 22 2728 21 5969
7869 0.197062 0.408779 2.87786 97 78 84 1.64644 24 1307 22 403
7867 -0.426527 0.377719 2.76518 160 192 229 0.745032 24 2187 33 9554 23 2431 5 3310
7865 0.0952153 0.170754 2.87408 23 21 22 1.24398 24 2792 23 2400 9 3785
7864 -0.3491 -0.0781376 3.15689 170 155 134 1.78236 25 4946 23 2391
7862 -0.244189 -0.451057 3.2321 173 173 174 1.09322 25 3440 23 2333 26 2880 27 3119 22 2462
7861 -0.235446 -0.467596 3.22586 201 201 203 0.370414 25 5188 23 2320 26 2862 27 3089
7860 -0.258995 -0.459953 3.21568 162 160 161 0.540747 25 3446 23 2319 26 1934 27 2789
7859 -0.275515 -0.464114 3.20146 34 30 29 0.623742 25 3456 23 2315 26 1936 27 3104
7858 -0.254593 -0.477295 3.20857 191 191 189 0.573869 25 3463 23 2312 26 1940 27 1882
7857 -0.226246 -0.488774 3.2179 38 32 41 0.838188 25 3464 23 2311 26 2843 27 3061
7856 -0.234104 -0.499192 3.21248 33 31 34 0.391888 25 3472 23 2309 26 2833
7855 -0.482869 -0.625567 3.53388 51 48 30 0.558358 25 3610 23 2288 26 2744
7854 -0.489399 -0.641946 3.5172 75 67 64 0.618812 25 3633 23 2274 26 2717 27 3352
7853 -0.478902 -0.649497 3.52621 70 65 59 1.12672 25 2558 23 2273 26 2707
7852 -0.493276 -0.646686 3.51565 6 2 1 0.706178 25 3641 23 2270 26 2013 27 2060
7851 -0.491085 -0.651901 3.51499 64 60 53 0.604848 25 2568 23 2266 26 2016 27 3386
7850 -0.291276 -0.604983 3.24441 47 46 52 0.867503 23 2265 28 1267
7849 -0.492319 -0.657377 3.51472 10 2 2 0.67735 25 3657 23 2263 26 2018 27 3409
7848 -0.0885142 0.820367 2.78624 38 42 81 0.302334 34 1814 23 2252 24 1606
7847 -0.0544249 0.82403 2.79588 37 41 66 0.863897 24 1718 33 1859 23 2245
7845 0.0954607 1.12035 2.79451 0 2 7 1.75026 24 3243 23 2200
7844 -0.00896693 0.858434 2.80084 49 53 80 0.611668 32 1887 23 2171 22 2329
7843 -0.252235 0.91515 2.74673 10 15 33 1.37834 32 5903 34 6538 23 2136
7842 0.240269 0.911445 2.85017 14 7 15 1.54495 32 5910 23 2128 8 7032 9 921
7841 -0.363878 1.01827 2.71738 17 22 37 0.651039 24 2403 30 1675 23 2097 22 2279 21 3222
7840 0.218435 1.09275 2.82668 60 58 61 1.21243 33 3883 23 2012 22 3477
7839 -0.596942 -0.622548 3.49096 155 145 135 1.07695 25 2579 23 2003 26 1229
7838 -0.464157 -0.666645 3.53678 75 68 62 1.4363 25 1535 23 2000 27 2104 26 1247
7836 -0.518841 -0.616269 3.54506 118 108 99 1.98474 25 974 23 1984 27 756
7835 -0.489482 -0.620819 3.53451 94 74 19 0.712356 25 1523 23 1983 26 1221 27 2035
7834 -0.215897 -0.517487 3.21839 38 36 41 0.615266 25 1464 23 1972 26 1175
7833 -0.223901 -0.505423 3.21516 38 31 38 1.08926 25 2459 23 1971 26 1174 27 1900 28 3018
7832 -0.222455 -0.492463 3.22037 42 37 44 0.79734 25 2452 23 1970 26 1173 27 1892
7831 -0.258464 -0.466303 3.21285 42 41 46 0.921626 25 1638 23 1967 26 1170 27 1874
7830 -0.236669 -0.462457 3.22727 49 49 49 0.618558 25 3444 23 1959 26 1935 27 3100
7829 -0.213321 -0.469971 3.23532 54 49 54 0.378474 25 2440 23 1958 26 1937
7828 -0.22434 -0.444091 3.2498 113 114 109 0.592905 25 3434 23 1954 26 1929 27 3126
7824 -0.113858 -0.16867 3.1659 195 192 185 2.0323 25 3355 23 1923 22 1905 26 1722 11 7889 27 1839 12 6418 14 1504
7823 -0.296604 -0.024694 4.88406 240 228 208 2.13567 25 2394 23 1919
7820 -0.116048 0.368431 2.82372 112 153 229 1.29169 30 1211 33 1429 23 1885 31 1835 32 1377 22 1848 21 2398 20 3686
7818 -0.470994 -0.618694 3.56508 120 114 109 2.12679 25 1520 23 1800 27 3303
7816 -0.197605 -0.443722 3.26888 5 6 8 0.823275 25 3430 23 1786 26 2884
7815 0.110111 0.533291 2.85296 102 127 160 0.237599 24 2003 23 1759
7814 -0.23745 0.591038 2.77702 23 29 43 0.639274 33 1310 23 1747 22 1720
7812 -0.0312573 0.518315 2.82042 58 55 82 0.566027 33 1899 23 1642
7811 -0.152382 0.656063 2.79078 0 0 0 2.12347 32 1466 34 8805
7810 -0.163805 0.674139 2.78785 183 208 238 1.2562 24 1845 30 889 31 1502 22 1555 21 2127 20 1979 19 1945
7809 0.222033 0.703073 2.85417 39 30 31 1.70075 34 8108 23 1451 11 8149 7 5179
7805 -0.251212 0.900911 2.74602 236 249 255 2.05275 30 4835 32 1988 23 1259
7803 0.273947 0.892094 2.87118 158 154 142 1.30218 33 468 23 1247
7802 -0.326709 0.943051 2.73094 62 70 89 0.962531 33 926 23 1241 22 1253
7801 -0.358246 1.01152 2.71892 20 22 37 1.34015 31 725 23 1209 22 1223
7799 0.017879 1.12306 2.77921 45 55 67 2.89196 25 3828 23 1116
7798 0.245068 1.15218 2.83108 253 247 235 1.78593 33 2767 23 1111 11 3635
7797 -0.120849 -0.137699 3.18713 158 154 142 1.36732 25 2069 23 1098 26 1138 27 1834
7796 -0.305915 -0.0327687 4.86336 194 180 154 3.14492 25 5022 23 1056
7795 -0.232229 -0.448292 3.23951 7 6 12 1.11399 25 3437 23 1054 26 1930 22 2466
7794 -0.26922 -0.425832 3.29104 6 7 11 0.393872 25 1449 23 1045 26 1926
7793 -0.229278 -0.515331 3.21097 41 41 39 0.741367 25 930 23 1044 26 744 27 725 28 1218
7790 -0.486143 -0.110614 2.9986 254 251 248 2.36474 25 4954 23 1035 26 2967 22 1031
7786 -0.3966 0.734255 2.73528 26 35 44 1.06182 33 706 23 873 22 859 21 2118
7784 0.138622 0.817927 2.83277 143 161 185 1.46847 32 7392 34 1080 35 2157 23 783
7783 0.281817 0.887668 2.84541 216 214 212 2.00909 33 934 23 749
7781 -0.0733904 0.984905 2.77711 183 205 225 0.421536 32 612 23 734 22 653 20 1140
7780 -0.20035 1.09272 2.74125 56 64 80 1.49874 35 2701 23 722 22 698 34 1967 11 8514 20 3064
7779 -0.556114 -0.627713 3.53204 126 114 100 0.947642 25 665 26 513 27 525
7778 -0.232257 -0.505693 3.21159 182 181 179 1.20382 25 929 23 668 26 508 27 493 28 748 7 5761 8 8664 9 7693 12 6463
7776 -0.114491 -0.159197 3.16915 224 221 210 1.23911 25 2368 23 653 26 1140 22 339 27 1073
7772 -0.21725 -0.499664 3.2189 141 137 133 0.730348 25 928 23 441 26 743 27 724 8 8649
7770 -0.613968 -0.0799005 3.02245 57 53 50 2.96436 23 418 26 1118
7769 -0.401718 -0.126878 3.03561 228 223 220 2.45179 25 1458 23 417 22 408 26 725 24 471 20 872
7768 0.0888963 0.205567 2.87345 17 19 23 0.414283 33 358 23 410
7767 -0.0714921 0.381501 2.82367 51 58 76 1.16084 33 341 23 402 5 1970
7765 0.198494 0.43502 2.86899 106 83 87 2.60406 33 370 23 397 22 298
7763 0.211154 0.51712 2.87706 93 76 82 1.91992 24 235 23 389 7 5339
7762 0.409672 0.501613 2.91427 234 220 211 1.8305 32 135 23 388
7761 0.223408 0.643197 2.86813 77 61 62 1.84906 24 250 23 376
7760 0.251523 0.996123 2.82456 11 10 15 0.532617 24 2368 23 327
7759 -0.528999 -0.613623 3.53907 74 65 56 1.43387 25 652 27 521 26 335 8 4967 9 7975
7758 -0.315735 1.11713 2.71846 64 67 84 1.42111 32 198 23 300 6 2774 35 2072 9 3623 13 1246
7757 -0.517582 -0.631815 3.55109 62 53 44 2.13736 25 329 23 297 26 245 27 235
7756 -0.298991 0.470007 2.7766 26 33 43 0.526573 32 230 23 293 5 3295
7755 -0.167055 0.459406 2.80863 19 28 37 0.92505 33 247 23 292 7 3113 6 5076 8 7287
7754 -0.247373 0.678961 2.77094 23 32 41 0.236348 34 257 23 287 11 1814 8 2073
7752 -0.5132 -0.609529 3.56171 153 140 129 2.26459 25 228 23 261 26 183 8 2699
7748 -0.0463864 0.812059 2.79843 159 184 206 0.782128 32 176 23 226 9 1827 15 3453
7746 -0.251152 0.639774 2.7728 25 32 42 0.533392 35 210 23 214 10 2239
7744 -0.364572 0.396411 2.77228 58 57 93 1.99707 33 161 34 163 23 210 22 225 21 393 5 722 4 684 2 780 1 758 13 2035 14 770 15 1119
7742 0.344347 0.557897 2.89561 58 47 53 1.11268 34 40 23 172 22 3802
7741 0.223359 1.16467 2.82242 84 78 64 0.728358 32 66 23 159
7740 -0.269917 0.787877 2.7612 0 0 0 0.787921 32 107 33 154
7739 -0.139828 0.540917 2.80752 55 68 85 1.26843 32 82 33 89 23 128 9 386
7737 -0.249408 1.036 2.73355 52 63 81 2.03506 24 106 33 82 23 116 8 395 10 589 12 564
7736 -0.111968 0.697784 2.79711 38 60 86 1.42196 25 128 23 108 22 75
7735 -0.299484 0.180535 2.81748 225 210 187 0.196404 25 60 23 95
7734 -0.298195 -0.578455 3.22993 37 36 42 1.25243 25 99 23 89 26 60 27 76
7733 -0.29512 -0.438363 3.26298 2 5 12 1.10698 25 114 23 82 26 84
7730 -0.343686 1.16905 2.7142 1 2 4 1.34139 25 94 23 57
7729 -0.409578 1.15709 2.69557 17 19 18 2.06994 24 32 30 10 33 23 20 45 11 201 19 47 9 210 15 153
7728 -0.322802 0.959007 2.73545 0 0 0 1.05219 25 57 30 24
7727 -0.0232446 0.739214 2.80615 27 48 75 0.462678 24 48 23 49
7726 -0.589008 -0.15693 2.99748 49 46 38 0.511179 23 42 22 49
7724 -0.194722 1.07807 2.75071 54 64 73 1.74515 32 17 22 32 23 39
7723 0.0454797 0.769583 2.81098 48 59 77 1.78541 24 26 23 36 22 29 7 156 10 118
7722 0.0194905 0.537638 2.8209 52 63 81 0.977696 25 52 23 33
7720 -0.379063 -0.481331 3.28585 0 2 1 2.49219 25 20 23 18 26 22
7719 -0.315382 0.385752 2.76651 32 39 55 2.49063 25 4 23 4
7718 -0.0524067 0.469395 2.82493 149 162 179 2.033 32 1755 31 1299 32 5197 34 5763 33 5213 31 5370 35 8984 24 2108 25 2277 34 1446 35 1288 22 1800 21 2560
7717 0.0170285 0.845688 2.80472 181 203 230 0.934794 31 844 30 745 24 934 25 1171 34 1053 35 953 23 1074 21 1892 20 1800 19 3737 15 5684
7716 -0.0853356 0.848096 2.78606 27 33 44 1.68671 32 1873 33 1897 31 838 30 1112 24 2482 25 1840 25 4292 34 1081 35 1602 23 2214 22 1315 21 1913 20 3166
7715 0.132586 0.940753 2.8185 157 169 180 1.49877 32 1423 33 1960 31 1725 30 1108 24 1478 25 1783 34 998 35 1934 23 1235 34 2907 22 2291 21 1851 20 2271 11 8319
7714 -0.359828 1.00522 2.71797 9 13 19 1.61279 32 605 33 898 31 512 30 471 33 1980 34 2659 24 2410 25 1133 23 733 22 649 21 1096 20 1756
7713 0.0118755 0.844445 2.80601 27 33 35 1.51006 32 1868 33 1901 31 1678 30 1611 24 3534 25 1843 34 1856 35 1628 23 2203 22 2346 21 3291
7712 -0.425199 0.645194 2.73676 202 224 234 1.15436 32 1211 33 1268 31 1098 24 1164 25 2131 34 1384 35 1268 23 1698 22 1684 21 2279 20 3501 11 8145 6 5021 8 7190 15 3458
7711 -0.301019 0.868161 2.74157 45 51 53 1.62645 32 938 33 976 30 717 24 1577 25 1822 34 1088 35 1583 23 1318 22 1321 21 2525 20 3177
7710 -0.0939948 0.68923 2.79952 209 225 230 2.17823 32 8123 34 8484 33 7838 30 6667 31 8110 35 1118 24 1797 25 2013 32 1120 23 1525 22 1519 33 1148
7709 -0.119247 1.03422 2.76251 30 39 52 1.18339 33 2268 31 753 30 1683 25 4092 34 2241 35 2756 23 1178 22 2261 21 3199 20 5663 19 8206
7708 0.0657082 1.01107 2.79915 187 201 218 1.47296 34 6910 33 6480 34 1930 24 2379 25 2800 23 2088 33 1998
7707 0.144583 1.06325 2.81072 157 166 192 1.65583 32 830 33 848 31 737 30 660 34 1977 35 1730 24 1374 25 1712 23 1136 22 1155 20 1688 19 1749 21 1770
7706 -0.112028 0.523839 2.80863 148 160 185 1.9621 34 8258 33 8917 32 1477 30 1308 35 1055 25 2246 23 2523 22 2704 21 3716 20 3564
7705 -0.312393 0.594177 2.76285 233 249 252 1.33951 34 5564 35 5202 32 1537 34 1552 33 1531 31 1874 30 1369 24 2035 25 4652 23 1756 22 1728 21 2302 20 3535
7704 0.0217077 1.06702 2.78614 196 216 249 1.54336 32 6546 33 6819 34 2789 30 1728 25 4021
7703 -0.0417075 1.00799 2.78165 170 188 211 1.35249 33 6437 30 476 31 513 24 898 25 1753 23 681 22 661 21 1084 20 1133 19 1807 5 5349 6 4747 2 4691 15 5605 16 7466
7702 -0.0929716 0.823206 2.78804 50 74 122 1.32744 32 7399 33 5678 31 7432 35 1001 33 672 24 973 25 1206 23 809 22 1348 21 1944
7701 -0.0498465 0.496411 2.82324 141 156 175 1.58396 32 2906 33 3532 31 5309 24 4098 35 3238 25 3221 32 1686 31 1319 30 1280 22 1779
7700 -0.071375 0.595561 2.8104 169 185 193 1.48022 32 2459 34 2502 33 2527 31 3120 30 4139 24 2992 25 4628 32 7890 33 8512 35 8441 23 2604 22 3842
7699 -0.0528233 0.713542 2.80426 28 36 43 1.46421 32 2358 34 1734 33 2418 31 2084 30 1893 25 3006 32 4859 34 8283 33 4597 31 7972 35 2219 23 2227 22 2051 21 5651 20 5907
7697 -0.0484664 0.440801 2.82902 44 50 58 1.52706 32 1918 34 1457 33 2086 31 1364 30 2045 35 1305 24 2124 25 2297 34 837 24 1218 23 2492 22 1814 21 3758 20 3627
7696 0.127499 1.03938 2.8093 115 132 152 1.43304 32 1967 34 930 33 2026 31 1768 30 1756 34 2821 24 2350 25 4074 23 2067 22 2247 21 5258 20 1708 11 8402 15 5637
7694 -0.0290053 0.979661 2.78452 202 214 230 1.51208 32 1929 34 1909 33 1974 31 1735 30 1658 24 2404 25 2811 34 6345 30 3007 23 2107 22 2283 21 1844 20 2269
7693 -0.0756401 0.72002 2.79756 32 35 38 1.08246 32 1717 33 1735 31 1555 24 1741 34 1211 35 1508 25 1971 23 1354 22 2743 21 3449
7692 -0.231883 0.589716 2.78007 135 153 181 0.851836 24 1173 35 643 24 753 32 746 25 1366 23 948 22 934 21 1355 6 5015 5 5660
7690 -0.208008 0.643668 2.78135 19 22 24 1.01832 32 723 31 627 24 721 25 862 34 397 35 612 23 620 22 902 21 1233 15 1833
7688 -0.089977 0.526954 2.81201 228 239 248 1.44776 35 3965 32 1484 34 2126 33 1840 31 1334 24 2057 25 3229 23 1594 22 2721 21 2320 20 3556 6 5024 5 5657 30 1309 8 7226
7687 -0.109571 0.549893 2.8067 207 223 248 2.13763 32 9067 34 3386 33 8797 31 3180 35 5205 32 1500 34 1351 33 1649 30 1331 35 964 24 2038 25 1633 23 1783 22 1995 21 2300 20 3532 15 5839
7686 -0.118105 0.584031 2.80262 150 162 171 2.08174 32 8868 34 5517 33 4992 31 5078 30 7335 35 5135 31 5073 25 4643 23 3963
7685 -0.275471 0.639179 2.76797 33 15 17 0.905618 32 8567 34 9120 33 8330 35 707 24 1139 25 1338 23 1678 22 1655 5 5648 2 4892 4 5164
7684 -0.262896 0.643501 2.76905 24 6 6 0.88812 32 8525 34 9066 33 8295 30 7032 32 1200 34 1353 33 1247 31 1089 24 1940 25 2113 23 1660 22 1640 21 2228
7682 -0.125896 0.378129 2.81751 191 205 230 1.65585 32 5385 31 5519 24 4219 34 1476 33 1412 24 2166 35 1324 25 2324
7680 -0.10764 0.623558 2.80217 40 45 55 1.31324 34 2489 24 3893 25 4607 32 3341 33 2509 31 3079 30 4071 35 2294 23 3423
7679 0.00392682 0.753041 2.81132 41 49 56 1.02998 32 670 34 1161 31 928 30 817 24 1005 24 1658 23 834 23 2844 22 1415 21 1996 20 2278
7678 0.463815 0.91272 2.9082 242 240 241 1.61113 34 283 25 694
7677 0.207795 0.438296 2.8815 23 20 25 1.49702 33 778 25 572
7676 0.29096 0.77332 2.86512 9 10 15 1.40985 24 646 25 398 5 3215
7675 0.410628 0.968264 2.85997 14 13 18 1.17528 24 583 25 262
7674 0.400305 1.00675 2.87489 10 9 14 1.04257 25 261 22 1189
7673 -0.413487 1.16187 2.70821 2 3 5 0.898717 34 37 23 53
7672 0.146571 1.08197 2.80991 97 113 138 1.37868 33 841 31 466 30 653 25 1692 24 1367 34 915 33 2215 23 1131 22 1146 20 1686 11 8474 7 4804 35 1733 8 6883 9 6685 12 5849 15 5603
7671 -0.158757 0.602007 2.79306 139 148 162 1.58243 32 1244 33 1288 24 1302 34 1390 25 2157 35 627 32 8779 34 9279 33 8518 31 642 30 958 23 1711 22 1689 21 2258 20 1228 11 8116 7 5329 23 624 6 4992 5 5628 2 4870 4 2924 8 7187 9 6426 15 1847
7670 -0.0703573 0.622458 2.80785 144 160 175 2.25538 32 1588 34 1338 30 1401 24 1911 35 1201 25 2123 32 4871 33 4875 31 3834 30 3257 35 5023 22 2844 21 3564 20 2020
7669 -0.428407 0.779589 2.72387 44 49 59 2.10095 34 8191 35 7579 35 3044 24 4348 25 6079
7668 -0.313892 0.377997 2.78645 39 46 57 2.77225 33 4158 34 10426 35 3713 24 4249 25 6032
7667 0.116199 0.519228 2.84967 27 28 31 2.33149 24 3996 35 1912 34 5587 33 8833 25 4697
7666 0.130777 1.04916 2.81006 15 20 24 1.01308 24 2336 32 1974 31 1775 25 4062 22 2238 21 5245
7665 -0.0426447 0.446587 2.82896 92 105 127 1.03733 24 4148 35 1303 32 1901 34 1455 31 1316 25 2295 23 2496 33 2082 22 2057 21 2367
7664 -0.0771119 0.710762 2.80031 38 42 45 1.40121 24 1759 35 1500 32 1092 33 1118 31 979 30 1507 24 1756 25 1984 23 1490 22 1482 21 2059 20 3303
7663 -0.00169067 0.752749 2.81059 48 54 62 1.94197 32 7745 33 7448 35 1556 25 1931 34 8007 31 7718 30 6274 23 2832 22 2427 21 3387
7662 -0.0472606 0.802674 2.79637 19 25 31 1.90832 30 794 35 2184 32 2306 34 3030 30 6039 24 3608 25 1898 23 1386 21 5540
7661 -0.00845253 0.677769 2.81633 123 132 137 1.99419 32 1675 34 1243 33 1152 24 1790 25 2018 32 4684 34 3169 33 4670 31 4691 30 3901 35 1112 23 1388 22 1520 21 2470
7660 -0.377839 1.12813 2.70486 29 32 43 1.85544 33 6993 34 1982 35 4447 24 1368 25 1672 21 1769
7659 -0.228447 1.10077 2.73686 149 159 166 1.4917 24 855 34 921 32 1086 33 834 31 759 35 1722 24 1371 25 1071 23 1127 22 1148 21 1773 8 6926 9 6679
7658 -0.439877 0.510243 2.74685 9 14 23 1.64398 35 454 34 380 30 1016 25 571 23 398 22 405 21 419 11 3824 33 334 7 5479 20 1267 6 5095 8 7278 9 3729 10 4893 13 4753
7657 0.0973485 1.02751 2.80469 18 23 30 1.10876 24 280 35 186 32 193 31 128 30 107 25 257 22 204 20 382 19 342 11 900 7 1049 8 1153 9 885 10 1107 12 958 13 1274 14 791 15 1092 17 1140
7656 -0.0551984 0.436242 2.82707 129 137 156 1.4326 34 2027 33 2089 24 2865 25 3275 30 1247 35 1336 33 3587 31 5424 23 2489 22 2658 21 2373 20 2149 19 4281 6 6404 5 5702
7654 -0.372755 1.04403 2.72157 28 35 51 1.84021 34 6812 25 6104
7653 -0.194044 0.914943 2.75865 31 40 55 1.59953 31 4254 25 6094
7652 0.121018 0.878459 2.8067 18 28 47 0.62413 34 2926 25 6091
7650 -0.291665 0.593147 2.77069 4 11 25 1.95201 34 9530 25 6058 21 5957 7 5368
7648 -0.302198 0.497369 2.7698 4 12 24 1.11878 34 9902 35 5362 25 6045
7647 -0.0609615 0.411547 2.8274 12 17 38 2.19492 31 3301 32 9588 25 6039 21 3779
7645 -0.394268 0.370545 2.7596 15 30 51 0.422318 34 10480 25 6031
7644 0.0135708 0.174705 2.86776 27 26 21 0.851708 31 5691 25 6029
7643 -0.197312 1.17543 2.73562 207 204 193 0.235308 30 2882 25 5008
7642 0.151201 0.933551 2.80763 39 47 66 0.619855 25 4955 21 5376
7640 -0.309922 0.239197 2.79298 5 13 24 0.78078 33 9769 25 4923 22 4149
7638 0.188824 0.190274 2.90244 18 5 15 0.482545 32 247 25 4905
7636 -0.408182 0.292472 2.7723 0 0 0 0.595617 33 2674 34 2082 35 1870
7635 -0.171371 0.329975 2.81851 0 0 0 0.383293 24 4257 35 3760
7634 -0.46906 0.375591 2.75551 47 56 71 1.59696 32 9793 35 5652 25 4871
7633 -0.119816 0.356473 2.82185 0 0 0 0.44268 31 3348 35 9694
7632 -0.310251 0.426283 2.78085 36 47 65 0.268689 33 9346 25 4819
7631 -0.461285 0.449091 2.74832 50 57 75 1.52841 35 5528 25 4816 5 5772
7630 -0.304212 0.463761 2.77346 4 12 23 1.59587 24 4189 32 5251 25 4788 8 4071
7627 -0.103977 0.548234 2.80929 21 23 39 0.693678 24 4030 25 4694 23 3528
7626 0.18032 0.607872 2.85739 104 99 101 2.05006 34 8771 25 4672
7625 -0.308207 0.592757 2.76665 15 26 44 0.323216 33 8664 25 4658 23 3961
7623 -0.0434317 0.623537 2.81241 16 24 52 0.901556 24 3861 35 3126 25 4600 23 3414
7622 -0.140895 0.646176 2.7946 35 44 54 0.333123 32 2412 35 5016 25 4588
7621 0.219932 0.648278 2.8654 17 5 27 2.22017 24 1771 25 4542 7 2983
7620 -0.436528 0.697098 2.73227 44 51 67 1.72993 31 3483 35 1209 25 4540 21 3572 4 5204 1 2427 3 5427
7619 0.214271 0.651396 2.85902 155 151 150 2.10559 24 681 25 4531 7 5227 6 452
7617 -0.0397679 0.741381 2.80372 7 12 44 0.470946 24 2568 35 3007 25 4425
7615 0.188734 0.736306 2.8477 1 2 6 1.72301 35 7152 25 4410 5 5441
7614 -0.130679 0.756994 2.78286 36 48 64 1.02367 34 4977 25 4401 21 5612
7613 0.231467 0.772369 2.85112 11 10 15 1.50361 24 1608 25 4370 23 283
7612 0.228376 0.776145 2.85062 6 5 10 1.48692 34 4822 22 1371 21 949 11 1801 13 4611
7611 -0.0283586 0.802861 2.79976 129 164 197 0.24661 35 4736 25 4358
7610 -0.0138161 0.805037 2.80318 11 21 56 0.590718 35 2921 25 4352
7608 -0.368072 0.866765 2.72715 32 39 55 1.26206 34 7694 25 4267 31 5328 21 5525 5 5532
7607 -0.306191 0.87824 2.74045 15 25 43 0.794075 34 2981 25 4254 23 3988
7606 -0.255902 0.882841 2.74744 2 5 24 0.138098 35 4673 25 4243
7604 0.124305 0.890588 2.81471 21 32 49 0.333929 34 2716 25 4212 23 3117
7600 -0.170264 1.05265 2.75037 2 13 30 0.611578 30 2270 25 4053 23 3014 22 2978
7599 0.005317 1.0549 2.78266 217 230 251 0.927742 32 4054 25 4047 23 2145
7598 -0.376084 1.13434 2.70266 0 0 0 1.87352 34 2763 35 4433 25 3861
7597 0.072213 1.05715 2.79706 183 203 236 0.137775 34 2803 25 3743
7596 0.260869 0.91461 2.84702 0 1 4 1.64919 24 613 25 3596 7 1657 9 3092
7595 -0.297262 0.235058 2.79413 34 44 56 1.71935 34 2674 25 3347 5 5827
7594 -0.325418 0.253164 2.79174 38 47 64 2.56348 35 3863 25 3346 22 3001
7593 -0.127795 0.239983 2.82863 0 0 0 1.38308 34 1507 35 1867
7592 -0.318948 0.337364 2.78749 35 47 63 0.487464 32 9856 25 3336
7591 0.137122 0.269263 2.87473 195 186 187 1.70141 24 2811 25 3335 5 3292 6 5108
7590 -0.316002 0.337326 2.78417 8 17 28 0.74273 32 3615 25 3333 5 5794
7589 0.194081 0.329299 2.88907 142 134 131 1.54151 24 205 25 3314 23 320
7587 0.232284 0.382027 2.89029 247 247 246 2.25324 30 584 25 3285
7586 -0.0540292 0.416858 2.8269 21 31 53 0.217926 35 1837 25 3283
7583 0.103057 0.456917 2.86051 174 196 235 0.769287 24 2897 25 3258 23 2509
7582 0.105236 0.463966 2.85965 169 195 244 2.41488 24 2086 35 1818 25 3252 23 1679
7580 -0.444099 0.650249 2.73523 1 3 9 0.764164 35 3190 25 3181
7579 0.11456 0.572934 2.84968 137 153 187 1.28442 24 1938 35 1417 25 3160 23 2609 7 5303 6 4960 5 5561
7578 -0.239068 0.605285 2.77601 11 12 25 1.61666 31 5033 35 1382 25 3158
7576 0.212614 0.6198 2.8582 195 191 182 1.38845 24 3764 25 3085 6 4905
7575 -0.451633 0.559633 2.7363 0 2 9 1.27064 35 5328 25 3070 5 5719
7574 -0.305199 0.693307 2.75666 19 26 52 1.03195 35 8027 25 3043
7573 -0.0477801 0.675545 2.80759 32 39 68 1.34777 33 1683 35 1482 25 3042 23 2719 22 2931
7572 0.236033 0.658651 2.86546 7 6 12 2.43781 24 617 25 3037 7 2974
7571 -0.0130848 0.69094 2.81416 23 31 54 0.799746 24 2610 35 2227 25 3019 23 2747 22 2958 21 3463 30 1486 20 3312
7570 -0.156446 0.484241 2.81068 38 46 65 1.31675 34 5778 35 9072 25 3014
7569 -0.0481899 0.727047 2.80334 134 150 183 0.441979 30 1524 35 1520 20 3283
7568 0.242257 0.722183 2.85981 7 6 11 1.68824 24 1000 25 2978 7 1699
7566 -0.0792617 0.812556 2.78651 10 16 40 0.830154 24 1652 33 2366 25 2920
7565 -0.0729665 0.823292 2.78891 75 110 191 0.899606 24 2513 34 1822 25 2909 23 2248 22 2375 21 3325 30 780 20 3187
7564 -0.242529 0.853852 2.75484 7 4 14 0.743889 24 1588 31 1686 25 2879 21 3326 20 5783
7563 -0.101661 0.210159 2.84442 3 6 13 1.44575 34 4222 25 2861
7562 -0.44924 0.237113 2.76957 0 1 9 0.169486 24 2870 25 2852
7561 0.500515 0.923496 2.93234 5 3 8 0.277633 34 202 25 2836
7560 0.0822524 1.02461 2.80159 137 156 186 0.983228 24 2360 34 6981 25 2790 23 2075 22 2257
7559 0.155903 1.11075 2.80733 48 55 71 0.49863 34 4218 25 2746
7558 0.116873 1.11842 2.79836 0 3 13 0.734725 24 3242 25 2744
7557 0.0615146 1.12226 2.79114 30 39 56 1.54269 33 2789 25 2742
7555 0.112535 0.549611 2.85133 128 173 212 1.56014 24 2980 35 2314 25 2339 23 2584
7554 0.190092 0.30597 2.89156 52 42 47 1.06669 24 2824 25 2334 23 295
7553 -0.111486 0.419216 2.81569 0 0 0 1.61427 33 2097 35 686
7552 -0.0498392 0.541601 2.81879 27 33 55 0.0570208 33 1685 25 2308
7549 -0.115553 0.469429 2.81277 27 42 56 1.67599 30 2646 25 2281 21 2365
7548 0.0969885 0.444941 2.85605 34 40 62 1.18034 35 1281 25 2278
7546 0.206022 0.455881 2.88406 37 32 39 1.17344 24 353 25 2271 23 395 5 716
7545 0.10579 0.471581 2.85779 89 120 159 2.00459 24 2077 35 1173 25 2266 23 1839
7544 0.105385 0.481084 2.85628 147 183 219 1.82566 24 2067 35 995 25 2261 23 1828
7543 0.106397 0.485409 2.85268 91 111 161 1.16241 34 816 35 905 25 2255 6 5009 5 5616
7542 -0.23918 0.527693 2.7817 10 14 25 1.37415 24 2095 25 2252 23 1834 22 1786 21 3731 6 5055 5 5693
7541 -0.0887248 0.532188 2.81133 32 41 58 1.57722 30 7550 25 2249 23 1807
7540 -0.0902155 0.515408 2.81402 167 198 230 0.601767 35 1106 25 2244 22 1998 31 3211 21 3719
7539 -0.0242233 0.517607 2.82993 0 0 0 0.0350518 24 2055 34 1137
7536 -0.0158495 0.558504 2.82474 28 39 60 1.22529 34 1410 25 2201 23 2572 5 5609
7534 -0.0550774 0.603252 2.81093 30 31 57 1.21992 33 2520 25 2143 23 3447 22 3827
7533 -0.1023 0.614447 2.80255 115 136 172 0.16443 31 1417 35 1226 20 2289
7532 -0.0548735 0.613069 2.81262 20 32 47 0.775616 35 1211 25 2133 21 5828
7531 -0.0547767 0.662468 2.80892 0 0 0 1.04366 32 8297 35 1134
7530 -0.307268 0.6885 2.75664 25 31 53 0.338453 31 1516 25 2036 22 2898 21 5771
7528 0.128919 0.713575 2.84048 0 0 0 1.49153 24 1699 35 1368
7525 -0.103118 0.76588 2.78993 24 32 52 1.14084 30 808 35 1044 20 1890 19 3879 2 6148
7522 0.00564729 0.801857 2.80158 0 0 0 0.386341 34 1112 35 1585
7521 -0.0742766 0.808649 2.7885 0 0 0 1.39382 30 6018 34 1129
7520 -0.216171 0.834204 2.75996 5 12 28 1.15607 35 2934 25 1863 22 2031
7519 -0.0745079 0.844574 2.78684 31 36 58 0.86763 34 1077 35 1605 25 1845 22 4292
7516 -0.0157561 0.847128 2.79758 135 156 191 0.418902 34 1057 35 1630 25 1836
7515 0.196857 0.860137 2.83425 2 3 7 1.01886 24 2241 35 2137 25 1805
7514 -0.299845 0.882698 2.74336 56 66 91 1.03239 30 713 23 1281 20 3154 19 3835 33 1486
7513 0.206995 0.876493 2.84587 34 34 34 2.15483 24 3493 33 6060 25 1799
7510 0.134506 0.963042 2.81555 132 152 192 0.606672 24 1467 34 980 35 1933 23 1217
7509 0.302063 1.01156 2.84116 6 5 11 1.04152 24 239 25 1743 6 1617
7507 0.112338 1.02902 2.80682 97 139 171 1.04105 24 1411 34 941 35 859 25 1734 23 1173 33 877 22 1187 4 4804
7506 -0.172909 1.0661 2.74865 74 90 121 1.47227 33 856 34 938 25 1705 23 708 21 1073 20 1717 30 432 19 1794
7503 -0.140078 1.07518 2.75456 18 28 39 2.71354 34 1954 35 2711 25 1696 22 690 11 8491 7 4869 6 6439 8 6941 9 6652 12 5832 13 4218 14 4949
7500 -0.122957 0.333747 2.82383 30 38 59 0.48851 31 1206 35 702 25 1507
7499 0.22011 0.435105 2.88456 180 171 173 1.4102 30 1255 25 1413 7 5411
7498 -0.0279047 0.541684 2.82367 32 39 55 0.657806 35 1369 25 1384
7497 -0.23701 0.602591 2.77999 9 11 28 0.85016 35 633 25 1360 22 1702 33 747 21 2274
7496 -0.0332832 0.614523 2.81455 0 0 0 1.97584 31 1115 33 1257 35 1430
7495 -0.215621 0.636629 2.77984 150 169 199 1.15156 30 928 33 1253 25 1331 21 2223 20 2045 19 1997 15 5757
7494 0.24064 0.633611 2.87947 112 112 107 1.17341 24 1061 34 162 25 1300
7492 -0.231006 0.724681 2.7682 84 114 146 0.0942729 35 1108 25 1265
7491 -0.0766491 0.725708 2.79644 20 31 51 0.446622 35 1071 25 1257 23 856
7490 0.24946 0.727397 2.85946 114 113 110 1.40543 24 1650 25 1237
7489 0.237194 0.814513 2.85002 11 10 16 1.30797 24 420 25 1191 21 3287 9 1824
7487 -0.289198 0.882894 2.74299 63 73 95 1.29715 24 937 33 956 23 761 22 757 21 1123
7484 0.0612354 1.03942 2.80133 21 30 43 1.26174 33 609 25 1115 6 4694
7482 0.0466444 1.05552 2.79194 25 33 49 1.32469 24 539 35 846 25 1078 7 4851 6 4679 5 5290 2 4655 1 4339 8 6933 9 6644 11 8439 13 4282 14 4907 16 7470
7479 -0.12166 1.04935 2.76154 15 24 33 1.98525 33 479 25 1043 11 8449 8 6977 12 5859
7477 -0.214784 0.571755 2.78378 5 11 23 1.66167 30 568 25 881 7 1752 17 7188 18 5179
7476 -0.269836 0.632633 2.77602 8 14 26 2.33416 24 734 25 868 7 5327 6 5006 5 5651
7475 0.283884 0.781177 2.85696 116 112 109 0.110951 34 196 25 828
7474 0.245237 0.846261 2.85489 144 146 143 1.54154 33 2322 25 820 22 325 21 358 7 2839 8 2039
7473 0.2677 0.948264 2.84397 53 53 55 1.76598 24 903 35 2765 25 808 22 646 7 1653
7472 -0.0657136 1.0094 2.76969 28 30 51 1.24187 33 14 34 524 25 796
7471 -0.108174 1.02967 2.76444 21 30 36 0.946835 34 428 25 785 11 8421 7 4923 5 5362 1 4420 13 4301 17 7339
7470 0.0618862 1.05451 2.79482 25 29 41 1.16316 24 538 35 845 25 773 22 495 11 8437 7 4850 6 4676 5 5285 4 4816 8 6932 9 6645 13 4289 14 4903 15 5599 16 7465 17 7296
7469 0.262885 1.0721 2.83104 5 5 7 1.88408 30 5526 25 761
7468 0.440712 1.08142 2.86821 70 69 66 1.58985 35 153 25 758 2 1778
7466 -0.389182 1.15743 2.70434 19 26 37 1.53089 34 898 25 734
7465 0.212312 0.562792 2.86714 84 73 72 0.800159 33 560 35 8179 23 387
7464 0.21986 0.627463 2.86476 0 0 0 1.89753 33 567 35 7675 25 711
7463 0.346302 1.15061 2.83914 13 12 18 1.16008 34 216 25 705 5 1116
7461 0.0855434 0.174092 2.87421 29 27 27 1.90308 34 116 35 127 4 1073 3 1886 10 3902
7460 -0.121121 0.327496 2.82368 29 40 58 0.865491 33 350 25 577 11 3850 8 4114 9 3758
7455 -0.264732 0.709051 2.7623 8 17 26 0.54758 35 425 25 559 5 3258
7454 -0.00149121 0.766291 2.81065 24 35 53 1.07312 24 432 35 4775 25 551
7453 0.303499 0.903905 2.85353 9 10 15 0.717379 24 615 25 538 5 5299
7451 -0.330143 1.11289 2.71442 19 31 43 1.42764 30 244 25 521 6 4749 12 5808
7450 0.357988 1.14421 2.86296 17 17 19 0.889052 34 294 25 520
7449 0.298823 0.595683 2.88672 14 17 22 1.10167 32 497 34 178 25 424
7448 0.22314 0.603834 2.8679 36 36 38 0.986324 33 731 35 3084 25 423
7446 0.281381 0.646611 2.88381 15 16 21 1.69902 24 680 25 417 6 4885
7445 0.226634 0.694809 2.85413 0 0 0 1.63531 34 1758 35 7264
7444 -0.0799902 0.732166 2.79638 177 195 217 0.46042 30 226 25 408 20 585 11 1803 8 2059 12 1809 15 3461
7442 0.240932 0.766076 2.85763 14 16 21 1.45923 32 5200 34 2360 25 400 7 2934 5 5416
7440 0.271162 0.788378 2.86028 2 3 8 1.61311 30 515 35 290 25 396 2 2931
7438 0.46211 0.819868 2.89863 16 17 21 1.53683 32 290 25 387
7437 0.275117 0.853901 2.85572 17 16 22 2.45441 32 632 25 385 7 5007 13 2486
7435 -0.289997 0.896684 2.73804 23 31 47 0.616791 34 326 35 289 25 380
7433 0.258492 0.960643 2.84981 3 4 9 1.75418 33 635 25 371 7 4915 24 318 6 1625
7432 0.298117 0.957372 2.84542 11 10 16 1.26836 35 6383 25 370 6 975
7430 0.305278 1.02473 2.8428 12 11 17 0.167844 35 826 25 361
7429 0.315647 1.06403 2.84528 9 8 13 2.43631 24 822 31 6376 25 356
7426 0.243867 0.526849 2.87569 26 25 31 1.50747 35 2307 25 298 5 5544
7423 0.336319 0.968717 2.85835 10 9 15 2.41835 35 880 25 263 5 5266
7419 0.416472 1.03713 2.85413 10 9 14 1.15187 24 515 25 256
7418 -0.271625 1.122 2.72747 29 36 52 0.881877 32 103 25 248 8 1146 9 891 10 1111 12 962
7417 -0.332888 0.23751 2.79245 31 40 57 1.32577 33 152 25 215 22 189
7416 -0.279859 0.746728 2.75307 35 44 61 1.28784 35 105 25 204 7 5234 2 4838
7415 -0.229027 0.900707 2.74921 17 21 29 1.47495 30 111 31 81 11 591 14 509
7413 -0.20855 0.70692 2.77417 10 18 29 1.12276 31 69 25 140 8 405
7412 0.0250478 1.0574 2.78981 2 7 34 1.26974 34 68 25 135
7411 -0.0140008 0.656993 2.8122 131 147 183 1.05607 24 90 25 125 23 126
7409 0.0686038 1.05213 2.79705 0 5 33 0.944953 34 60 25 74 6 240 5 367
7408 -0.172777 1.07116 2.74597 0 9 36 0.627468 34 59 25 73 5 369
7407 -0.21197 0.64189 2.77301 7 15 32 0.138736 34 14 25 53
7406 -0.0860534 0.835582 2.78251 0 0 0 2.03815 34 21 35 5980
7405 -0.487247 0.205011 2.70779 7 10 15 0.388479 35 7 6 188
7404 -0.0633915 1.00473 2.7718 16 25 41 0.768436 34 23 25 46
7401 0.0707493 0.201752 2.87236 29 33 40 2.32275 32 3680 33 2686 31 3426 24 2797 35 1339 23 3735 22 4119 23 2406 26 1873 21 4006 20 3729
7400 -0.226691 0.64298 2.77626 119 139 164 0.903133 31 1088 30 924 35 616 32 724 24 1126 25 1329 22 904 21 1358 20 2036 12 593
7399 -0.232015 1.07775 2.73705 127 136 181 0.868392 33 2211 30 1731 24 2339 34 2214 35 2088 25 2756 22 2235 21 3179 20 5634 19 8191 15 5535
7398 -0.401197 0.347211 2.76964 9 16 28 1.73384 34 6040 33 9639 35 5666 32 9853 31 3365 30 4480 24 4279 25 4879 23 3714
7397 0.108631 0.991957 2.80946 44 53 65 0.994899 32 879 33 897 31 781 30 695 24 1445 34 971 35 1692 25 1758 23 1207 22 1214 21 1831 20 1744 19 3654 11 8357 5 5303 2 4658 12 5907 15 5657
7396 0.131913 0.808878 2.83052 34 43 51 1.24583 32 660 33 670 31 895 30 791 24 954 34 1089 35 1614 25 1207 23 796 22 776 21 1915 20 3173
7395 -0.121608 0.431571 2.81396 240 252 254 1.84173 34 5851 33 9249 31 3289 30 4374 35 9257 24 2851 32 9553 33 9259 33 2094 25 3282 23 2478 22 2648 21 5880 7 5497
7394 -0.112825 0.506913 2.81002 93 107 123 0.552186 34 9705 33 8984 24 2090
7393 -0.23087 0.711299 2.77008 152 167 180 2.25168 34 8474 33 7793 32 1103 33 1134 31 4614 30 6615 35 4913 24 3743 23 1517
7392 -0.0488998 0.707903 2.80551 125 139 163 2.08804 32 8012 33 7715 34 8331 31 8000 30 8087 24 1753 23 1489 35 7543 22 1481 21 3454
7391 -0.289397 0.820069 2.74886 67 77 103 1.06915 32 7460 33 7277 31 7463 35 1037 32 992 34 1146 33 1044 31 878 30 776 24 997 25 1214 23 1391 22 1394 21 1985 6 4898 5 5540 2 6143
7390 -0.11676 1.05193 2.75906 215 232 254 0.997575 32 5626 33 6695 31 6348 34 2839 24 2369 25 4051
7389 -0.0863454 1.0206 2.7715 57 66 96 1.59884 32 6240 33 6502 31 6123 32 596 31 508 24 584 25 795 35 902 23 687 22 665 21 1083 6 4763 5 5372 8 6996
7388 -0.0463956 0.865007 2.79109 111 126 146 1.99103 34 6451 33 5981 30 4694 33 1923 31 1695 30 1628 24 1536 25 2865 23 2167 22 2325 21 3279
7387 -0.0391055 0.503682 2.82349 199 211 229 2.06682 34 9645 35 3226 24 1194 32 1323 34 822 33 1369 25 1404 23 1092 22 1771 21 2334
7386 -0.157767 0.592022 2.79192 122 128 135 1.07743 32 8840 33 4983 31 7692 24 3970
7385 -0.316246 0.674646 2.75599 241 251 253 2.18199 34 5299 33 4759 31 8320 30 6811 32 8310 33 8098 24 3857 23 3378
7384 -0.115527 0.844217 2.78028 221 228 236 1.11505 32 3047 33 3073 31 2850 35 5960 24 3576 32 7242 34 7620 33 5778
7383 -0.047116 0.952245 2.78361 212 222 230 1.74962 32 1922 34 2272 33 1962 32 4177 34 6673 33 4118 31 4237 30 4619 24 2419 35 6242 25 2823 23 2115 22 2292 21 3233
7382 -0.0675185 0.747011 2.79803 30 39 48 0.862272 34 2392 33 1785 30 2389 24 2567 35 3006 25 4416 23 2818
7380 -0.0239927 0.657217 2.81397 208 219 226 1.58301 34 1272 33 1507 24 1832 34 3194 33 3305 31 4778 30 6905
7379 -0.224049 0.541157 2.78565 241 252 255 1.99161 32 1308 33 1357 34 8797 33 8895 31 3192 24 1199 25 1396 23 1818 22 1054 21 2336 6 5050 5 5690 15 5821
7378 -0.208685 0.649155 2.78146 23 28 30 1.7782 34 881 33 1230 32 1614 33 1513 24 1298 25 2099 23 1639 21 3570 31 19
7377 0.00524988 1.0344 2.78528 84 96 120 1.37506 32 827 33 876 31 755 30 1677 24 883 34 947 35 1711 25 1116 23 695 22 1190 21 1808 20 1727 11 8415 19 1782
7376 -0.421372 0.435679 2.75695 237 229 155 1.15398 32 779 33 791 31 1149 30 2668 24 794 34 517 35 696 25 1430 23 999 22 987 11 8058 20 2174 8 7323
7375 -0.172377 0.647684 2.7883 12 19 24 1.35405 34 757 33 728 31 415 30 551 24 714 25 1323 22 801 21 837 20 1216 19 1973 5 5597
7374 -0.32862 0.963219 2.728 45 54 65 1.92833 32 418 33 457 31 361 35 942 34 1011 24 621 25 1148 23 551 30 481 22 542 21 1104 20 1764
7373 -0.0301978 0.613371 2.81706 34 41 49 1.83436 32 221 33 239 30 2535 24 1121 25 1340 23 290 22 287
7372 -0.0414493 0.49057 2.8249 117 126 139 1.61406 32 9295 34 5704 33 9017 35 8245 34 1792 33 2064 31 2248 30 2629 24 2905 25 3245 23 2514 22 2691 21 6016 20 2313
7371 -0.0757314 0.546678 2.81379 149 164 184 1.67373 32 9072 34 9608 33 8790 35 1543 31 5183 32 1498 34 1553 33 1632 31 1348 30 1327 24 2032 25 2221 23 2364 22 1735 21 2292
7370 -0.204576 0.633988 2.78125 175 191 210 1.96909 32 8569 34 9062 31 1095 30 1410 35 1229 32 3338 34 3294 31 3073 30 4054 24 3906 25 4603 23 1670 23 3426 20 2044 19 4126
7369 -0.310659 0.718943 2.75339 209 225 230 1.77944 32 8003 34 8486 32 1095 33 1131 31 980 35 1132 24 1064 25 1275 22 863 21 2114 20 1969
7368 -0.0825891 0.720974 2.79758 225 245 252 2.04472 32 7961 34 8275 33 7653 31 7928 30 2408 24 1744 32 1446 34 1737 33 1738 31 1559 30 1517 25 2999 23 1474 22 1471 21 2052 20 3296
7367 -0.228808 0.727282 2.76852 240 251 255 1.60741 32 7945 34 8358 35 7644 32 7959 34 8373 33 7694 30 6443 24 3725 25 4467
7366 -0.122964 0.354724 2.822 19 26 34 1.57471 32 5400 34 2678 24 4231 35 1856 25 4853 22 4244
7365 -0.104376 0.613891 2.80223 176 194 208 1.40576 32 4897 34 5413 33 4905 31 4979 30 7195 35 5065 24 1936 25 2134 22 2828
7363 -0.101922 0.647167 2.8008 134 144 155 1.43919 32 3304 34 3236 33 3338 31 3048 30 4011 35 4992 31 8498 30 6960 24 3830 23 3379 22 3754
7362 -0.00739374 0.688098 2.81478 79 95 114 2.19714 32 3236 34 3158 33 3259 31 2982 30 2454 32 1117 34 1229 33 1140 31 1000 30 1482 24 1765 24 3726 25 2005 23 1510 22 1504 21 2074 20 3315
7361 -0.037549 0.712475 2.80661 65 81 99 2.15193 32 3214 33 3236 31 2962 30 3789 24 3706 32 1091 34 1214 33 1110 31 977 30 861 24 1292 25 1980 35 1078 23 1479 22 1476 22 3644 21 2050 20 1924
7360 -0.390491 0.73447 2.73604 112 123 143 1.69342 32 3207 34 3168 33 3242 31 2948 35 1130 24 2638 25 3009 23 2748
7359 -0.103972 0.843302 2.78287 236 244 252 1.6085 32 3049 34 6236 33 3072 31 2852 32 7251 34 7614 33 5781 30 5819 24 3575 23 3169
7358 -0.424482 0.414612 2.75752 184 199 213 1.83999 32 2588 34 1465 32 7463 34 10341 31 5501 24 2813 25 3312 23 3677
7357 -0.0946661 0.757231 2.79292 47 54 59 1.46668 32 2324 34 3094 32 1768 33 1796 30 1871 24 3668 25 4404 23 3251 22 2439 21 5597 20 5877
7356 -0.109046 0.766436 2.78866 156 172 200 0.589508 32 1784 34 1162 33 1809 31 1611 24 1676 25 1918 23 1412 22 1416
7355 -0.0969901 0.673511 2.79837 177 191 204 1.54921 32 1663 34 2117 31 2115 30 1556 24 2645 32 3257 33 2457 31 3008 30 3623 25 3045 23 2711 22 2923 21 3507 20 3367
7353 -0.0894493 0.58899 2.80604 35 46 47 1.1911 34 1389 24 1977 32 2467 33 2645 31 2189 30 2560 25 2163 22 1687 22 3856
7352 -0.188761 0.667115 2.78013 218 237 241 0.97943 32 1165 34 741 31 1039 30 901 24 1092 23 896 21 2165 20 1994
7351 -0.0575663 0.740148 2.80045 145 161 190 0.865823 24 1704 32 1752 34 1760 33 1776 31 1581 30 1533 25 1949 35 1534 23 2807 22 1444 21 3422 20 3270
7350 -0.122812 0.54166 2.80595 50 61 84 2.22385 30 4260 24 4048 32 9105 34 10503 31 9274 30 7512 22 3920
7349 -0.218344 0.629531 2.77895 143 153 161 2.28021 31 7623 35 8409 24 4329 32 4873 34 5419 33 4893 31 4928 30 7122 35 8429
7347 -0.229485 0.642187 2.77593 169 180 183 2.48653 31 4866 35 8319 32 8524 34 9029 33 8276 31 8629 30 7034 35 8339 24 4332 23 3971 30 4022
7346 -0.0886207 0.663059 2.80089 181 194 210 1.67491 31 8385 30 3957 24 3792 32 8304 34 8658 33 8006 35 7890 23 3358
7345 -0.238438 0.667913 2.77195 123 130 138 0.694573 24 3839 32 8333 33 8089 30 6851
7344 0.119539 0.62795 2.84733 89 111 170 0.421255 24 1840 25 2092 23 1601 5 5524
7343 -0.171473 0.512344 2.79756 162 168 168 2.25549 31 9420 35 5296 24 4106 32 9256 34 9730 33 5167 31 9433 30 7613 35 8923
7342 0.0756437 0.188767 2.8546 0 3 10 2.46076 34 4058 26 3007
7341 0.0890307 1.04608 2.80911 36 40 52 3.01492 35 867 24 550
7339 0.291288 0.88612 2.85732 12 11 17 2.54528 34 237 24 279 6 4754
7338 -0.291002 0.850096 2.74886 212 227 251 1.59614 30 8 21 10 20 11 11 53 7 100 8 81 9 71 10 68 12 57 13 57 14 60
7337 -0.0657786 0.666052 2.80583 82 88 90 1.89279 31 1495 24 1830 30 1461 34 3190 33 3296 31 4750 30 3946 24 3781 25 2043 23 3975 22 1545 21 2116 20 3363
7336 -0.129589 0.677219 2.79214 147 162 177 1.5043 32 3255 34 3187 31 3005 30 3917 35 4936 24 3783 30 888 32 8204 34 8595 33 4695 25 4534 23 2295 21 1208 20 1973 7 5260 6 4952 15 3466
7335 -0.0249985 0.509634 2.82674 150 166 185 1.91252 32 1590 33 1943 24 2923 34 1697 32 9232 34 8862 33 8940 35 961 35 9410 25 2248 23 2526 22 2710 21 2555
7334 -0.212668 0.654328 2.77757 2 5 8 2.20312 34 2472 35 3137 24 2703 31 2129 32 8432 33 8185 31 8509 30 2490 35 8197 25 4575 22 3768 21 5814
7333 -0.263623 0.752679 2.7598 7 12 18 2.08094 33 1765 30 1875 24 2595 35 3041 32 3167 33 3192 31 4518 25 2980 23 2790 22 2666 21 5655
7332 -0.413838 0.729463 2.7318 129 147 156 2.55449 34 5157 33 7761 24 3773 31 7955 32 7971 34 8524 33 7776 30 8094 23 3316
7331 -0.0860455 0.692716 2.79909 25 30 36 1.59308 30 538 34 480 32 304 34 342 33 314 31 406 24 439 25 560 23 375 22 390 21 833 20 1954 11 3806 7 5244 5 5547 8 7142 9 3701 10 4851 13 4651
7330 -0.1319 0.231417 2.83001 105 114 134 1.76412 33 9819 32 5535 34 6248 35 5726 24 4282 25 4907 23 3746 26 1844
7329 -0.0613973 0.76438 2.79829 30 32 39 1.15162 31 4485 35 2984 32 2319 34 2380 33 2385 31 2051 24 3656 25 4386 23 3236 22 3590 21 5582
7328 -0.0298816 0.47388 2.82748 51 60 78 0.982755 33 9075 31 1002 30 1023 22 1795 21 2351 20 2136
7327 -0.424881 0.358991 2.76329 20 26 34 1.34413 32 3609 35 2422 33 2697 31 3361 24 2802 25 3331 23 3705 22 2998 21 3820
7326 -0.413365 0.261243 2.77429 90 106 132 2.34637 34 2660 35 2455 33 5505 34 7031 35 6890 24 2773
7325 -0.053358 0.459546 2.82507 137 147 157 1.02356 34 859 35 1294 32 1343 33 1399 31 1861 30 7740 24 2116 25 2283 23 1857 22 1807 21 2362
7324 -0.16342 0.596297 2.79394 0 1 4 1.84605 31 1393 24 1989 34 9346 30 2202 25 4624 23 1715 22 3862 7 6390 8 7193
7323 -0.100787 0.684816 2.79794 7 13 20 1.11212 33 1694 35 1477 34 1247 30 1477 24 1810 25 2019 22 1527 21 3496 20 5939
7321 -0.322341 1.03753 2.72269 40 45 49 1.29823 35 2778 34 976 33 619 31 496 30 639 24 897 25 1614 23 688 22 662 20 1746
7320 -0.418762 1.17955 2.69086 43 43 45 0.951337 30 2912 31 3142 24 4396
7319 -0.071857 0.978705 2.77449 10 24 43 0.0608634 34 4615 24 4372
7318 -0.375992 0.992592 2.7189 42 51 66 2.60611 34 6670 24 4368 23 3998
7317 -0.470199 0.810905 2.71453 34 27 16 0.506729 35 7443 24 4349 25 4365
7315 -0.286501 0.66574 2.76348 58 67 82 1.34032 34 5321 35 5030 24 4334 25 4571
7314 -0.268009 0.202997 2.80747 2 2 3 0.867765 35 2217 24 4330 25 4930 23 2398
7311 -0.406698 0.29283 2.77644 0 0 0 0.430424 30 2742 31 5635
7310 -0.321512 0.290148 2.7883 15 23 35 2.5705 34 6158 24 4294 5 5813
7308 -0.511165 0.360185 2.74579 110 109 95 0.152765 30 4478 24 4287
7307 -0.125968 0.270925 2.82781 36 37 64 0.945716 33 3687 35 2457 24 4283
7305 -0.317469 0.329208 2.78564 14 22 34 1.13048 32 3622 24 4276 6 5151
7304 -0.430374 0.372995 2.76221 0 0 0 2.05564 30 1323 35 3793
7303 -0.126554 0.31328 2.82257 2 6 33 0.323318 34 2073 35 1861 25 4876
7302 -0.173701 0.323537 2.80634 35 43 58 2.04669 34 4255 35 3743 25 4873 5 3299 4 5253
7300 -0.312415 0.398962 2.78078 17 26 38 1.7653 35 1940 24 4232
7299 -0.31244 0.402577 2.78216 65 77 93 0.720536 34 5953 24 4227 21 6178
7298 -0.325022 0.270309 2.79161 16 24 35 1.68236 35 2442 24 4218
7297 0.190214 0.308546 2.88292 71 52 57 1.88117 32 2607 24 4215 23 319 22 307
7296 -0.309847 0.43228 2.77984 67 79 91 1.38721 33 5316 24 4212 22 4041 6 5111 15 1862
7295 -0.110089 0.419576 2.81993 167 194 219 1.80317 34 2595 24 4190 25 2309 23 2183 22 1829 21 2384
7294 -0.453464 0.520159 2.74301 77 83 99 1.34253 31 3226 24 4168 21 5949
7293 -0.0459078 0.439785 2.84117 160 186 211 1.8568 34 166 24 4161 25 309
7292 -0.157689 0.474512 2.8105 72 80 99 1.39816 34 5796 24 4147 23 3955
7290 -0.403392 0.548432 2.74992 0 0 0 0.27297 31 1336 35 719
7287 -0.396367 0.592838 2.74802 55 66 85 2.03788 34 9762 24 4056 25 4668 6 5052
7286 -0.386591 0.267646 2.78136 57 68 86 1.46859 34 4066 35 7210 24 4037
7285 -0.0733418 0.535914 2.81397 44 51 75 0.493043 33 3495 24 4035
